# .PCD v0.7 - Point Cloud Data file format
VERSION 0.7
FIELDS x y z
SIZE 4 4 4
TYPE F F F
COUNT 1 1 1
WIDTH 1278
HEIGHT 1
VIEWPOINT 0 0 0 1 0 0 0
POINTS 1278
DATA ascii
-74.21128845 12.67213249 12.60754967
-74.1007843 12.9366951 12.64372444
-73.98982239 13.01288319 12.42962074
-74.17182922 13.29804325 12.53792763
-73.98188019 13.32126331 12.52106571
-74.01597595 13.80397606 12.65096092
-73.97969055 13.63438129 12.40975189
-74.04056549 14.20969963 12.60016441
-73.9319458 14.26863861 12.5066452
-74.0598526 14.54590988 12.66992283
-73.91522217 14.721385 12.4632616
-73.94521332 14.97140026 12.47480869
-74.11212158 15.25671387 12.7359333
-73.95736694 15.36748695 12.59548759
-73.92192841 15.82679272 12.6552124
-74.05474854 16.2641201 12.67422771
-73.9213028 16.1383934 12.54541016
-73.91152191 16.57971764 12.55321121
-73.9473877 17.02394485 12.53142834
-73.9416275 17.49025917 12.63861847
-73.89866638 17.73028755 12.59676361
-74.17816162 18.15864563 12.48456001
-73.94953918 18.3786087 12.54424667
4.480809212 -2.003684759 13.18707466
22.66183853 -2.129734516 13.08264732
24.01453972 -2.114964008 13.10622597
-10.02748871 -1.651087999 13.12803268
-6.48388052 -1.751099825 13.04469872
-6.065562248 -1.764588594 12.94120884
-3.806099892 -1.891054034 12.81984329
-2.74422121 -1.904930353 13.11403275
-0.5340156555 -1.660711288 13.15102959
0.01029014587 -1.609788418 12.89460754
2.497282028 -1.663470387 12.86299229
3.245258331 -1.605986118 13.00974083
4.541349888 -1.618767858 12.9624939
5.189561367 -1.621377945 12.93865013
5.392123222 -1.809109688 12.975214
6.29843998 -1.612138271 12.92712402
6.522550583 -1.722329259 12.87938309
7.417737007 -1.616627455 12.89715195
7.726117134 -1.640624285 13.03881454
8.286960602 -1.873209 13.12337112
8.477977753 -1.63792026 12.97500324
9.081993103 -1.62678349 13.07896137
9.398172379 -1.789933205 12.8952198
9.933517456 -1.701904774 13.18771744
10.33247757 -1.771743417 12.84555435
10.63920307 -1.921096921 12.9658308
11.31450176 -1.618598461 13.03761673
11.83072472 -1.916629076 12.85357857
12.52636337 -1.60180974 12.96885777
12.97702789 -1.641033769 13.04452229
13.45877934 -1.687602997 12.96973801
13.73490047 -1.681764603 12.91399193
14.39446735 -1.681334376 13.11389828
14.58891296 -1.68053782 12.80528736
15.51352978 -1.732122064 12.82807446
16.14509201 -1.703411579 13.09099579
18.29379082 -1.70057714 12.86945343
18.55566216 -1.733761549 12.85008335
20.65159607 -1.867947698 12.80044174
24.00477982 -1.670517206 12.9142704
24.98273468 -1.763176441 12.97325706
26.40934944 -1.779832721 13.11140442
-21.48378563 -1.203687787 12.98505688
-21.0293293 -1.24301827 12.99081135
-19.81495285 -1.218575954 13.1224432
-19.28094292 -1.212870121 13.10252285
-18.9937458 -1.21293962 13.08133221
-18.7036438 -1.226784945 13.02383041
-18.16030312 -1.250579238 13.15838432
-17.79557419 -1.239042401 12.99266338
-17.36584282 -1.245889902 13.03591251
-17.13914871 -1.254590034 12.98849297
-16.60311127 -1.263359785 13.03052998
-16.19203568 -1.257330418 13.00018501
-15.76366138 -1.282602906 13.04554844
-15.39936256 -1.301824808 12.96223927
-15.00122833 -1.269674659 12.94268322
-14.66192722 -1.293171048 13.04271603
-14.19808292 -1.292638063 12.96806622
-13.75572014 -1.317613721 12.98090076
-13.48311901 -1.308795333 13.02342796
-13.03042698 -1.301036954 12.95823956
-12.50161648 -1.326428294 13.02631855
-12.28489304 -1.330684185 12.98870468
-11.80415821 -1.343659282 13.02941132
-11.47031116 -1.32935214 13.03017712
-10.9392271 -1.327117682 12.96245098
-10.55256176 -1.381743193 12.99209976
-10.25600624 -1.36910069 12.96494865
-9.812074661 -1.357147932 13.07347107
-9.347032547 -1.40691781 12.99040794
-8.989258766 -1.402461648 12.98158836
-8.639690399 -1.354213357 13.08071995
-8.14600563 -1.440428734 13.00072479
-7.783287525 -1.399381161 13.02576923
-7.309005737 -1.42568469 13.05993652
-6.567196846 -1.408480048 12.99215508
-6.202185154 -1.414660692 12.99358368
-5.764156342 -1.423422337 12.85318661
-5.407933235 -1.471025467 13.01680088
-4.99187851 -1.429367781 12.99604511
-4.5454669 -1.46428597 12.9783783
-4.176971436 -1.438193321 13.02097702
-3.926606178 -1.438329101 13.00114059
-3.358668089 -1.459405661 12.97113037
-3.024443388 -1.453056216 12.9391737
-2.598169088 -1.451987386 12.95406723
-2.07976079 -1.489585519 13.04017067
-1.739280343 -1.496439099 12.93174458
-1.436816573 -1.48735106 12.89787388
-1.016270995 -1.512427092 12.95255089
-0.601916194 -1.506762505 13.04121971
-0.1996034086 -1.5042665 13.00777721
0.1565016806 -1.513993263 13.05684185
0.5432171822 -1.501020074 13.00560951
0.9489278793 -1.50448525 12.9719696
1.432171345 -1.526238561 13.0110054
1.77241385 -1.536728144 12.97515583
2.401921988 -1.52260232 12.8665638
3.452123165 -1.560499668 13.05856323
3.745202541 -1.57626605 12.99330521
4.041496277 -1.579240918 12.89744949
5.025508881 -1.571342468 13.046875
5.444464684 -1.55830884 12.99935913
5.785386562 -1.569765091 12.94912243
6.637219906 -1.569570065 13.06221294
-39.30149078 -0.8226677179 12.84080601
-36.54807281 -0.8085418344 12.846138
-36.18833542 -0.8191957474 12.99828053
-35.81330109 -0.8763974905 12.963624
-35.40017319 -0.8810245395 12.93654919
-35.01776505 -0.9242988825 13.01248932
-34.59905243 -0.8508636355 12.81023312
-34.26690674 -0.8800451756 13.10348129
-33.84850693 -0.8992185593 13.02092457
-33.40850067 -0.8865199089 12.97165394
-32.91296005 -0.8856961131 13.03234959
-32.69446945 -0.9163300395 13.03893661
-32.20175934 -0.9261311293 13.01344013
-31.86981392 -0.9377726316 12.95756626
-30.97954559 -0.9459693432 12.91914749
-30.62684059 -0.9597856402 13.05202961
-30.01529884 -0.9623028636 13.07407379
-29.83699608 -0.9907541275 12.97570801
-29.41460609 -0.9873051643 12.99886322
-29.04393768 -1.005904675 12.90523338
-28.61833763 -0.9921853542 13.04857159
-28.27305603 -1.008751988 13.04133606
-27.73796272 -1.022602797 13.00591755
-27.49654388 -1.026728392 12.93576241
-26.9650631 -1.04786098 13.04809856
-26.5999794 -1.069594145 13.03666496
-26.1780529 -1.083731413 12.94251633
-25.803442 -1.074327111 13.01391602
-25.48858833 -1.041713238 12.9995327
-25.00507545 -1.086688519 13.05507278
-24.49586678 -1.117191911 13.04810143
-24.20978355 -1.131915927 13.01414967
-23.8234539 -0.9375254512 12.82559395
-23.4774704 -1.142677665 13.04008865
-23.01712227 -1.130419135 12.96712017
-22.61622429 -1.146910787 13.0091753
-22.14935112 -1.158255935 13.01273823
-21.67751884 -1.126967311 12.99157429
-21.41630554 -1.176169991 12.98317814
-20.96206284 -1.186122656 12.8272953
-20.55036736 -1.163876057 13.01113892
-20.16127586 -1.190312862 13.19132042
-19.92873192 -1.185720682 12.99081993
-19.4726963 -1.196511269 13.17530727
-17.49860382 -1.191175222 12.98649311
-47.99695206 -0.4260396957 13.14711189
-47.46031189 -0.4871842861 13.13365269
-46.11090469 -0.4600938261 12.92717648
-45.25402832 -0.4829009175 13.10074043
-43.5681076 -0.6325213909 13.09520626
-42.42603302 -0.7786653042 13.03428268
-41.79198456 -0.5976756811 12.90007401
-41.55384827 -0.5942645073 13.06216145
-40.98558044 -0.6123088002 13.01479816
-40.56971359 -0.6360161901 13.14776134
-40.16262817 -0.6454771757 12.85486031
-39.86632919 -0.6452126503 12.98505592
-39.47384262 -0.6687114835 13.1039238
-38.98316193 -0.6945995688 12.95460796
-38.71782684 -0.7462213039 13.0820303
-38.30614471 -0.7250552177 12.97276211
-37.38831329 -0.7504833937 12.90013981
-36.88626862 -0.7644000649 13.01375389
-36.67947769 -0.7868061662 12.89712238
-50.0723114 -0.2276028693 13.05170441
-49.94099045 -0.344863832 12.89208412
-6.829008579 -0.0989773795 13.03934383
-6.761845112 -0.0847607702 13.01523781
-6.315667629 -0.06911733747 12.97393703
-5.928793907 -0.08186905831 13.010355
-50.04125977 0.08518576622 12.97788429
-22.43577766 0.2047468573 12.86158562
-22.16178894 0.1842866391 13.0554533
-21.88275528 0.1856400669 13.06694794
-21.29417992 0.2081398666 13.02156448
-21.09584427 0.2230263203 13.01122856
-6.381574631 0.02288077399 12.97345352
-56.42632294 0.7513742447 13.15814972
-50.09680557 0.5464271903 13.04253483
-50.19870377 1.158076048 12.96761513
-50.10695648 1.39544785 13.07246304
-49.97176361 1.507720709 13.02065945
-50.05527878 1.668571591 13.03177261
-50.11471939 2.165454626 13.07917404
-72.68593597 4.366021156 13.14383698
-74.56752014 4.684269428 12.99794292
-72.80105591 4.61486721 12.98111534
-78.96818542 4.825918198 12.92988586
-74.53027344 4.825039864 12.96917629
-74.69844055 5.204731941 13.1386919
-74.55903625 6.223474503 12.96240425
-74.53554535 6.530751705 12.88354874
-74.48415375 6.959703445 12.81816006
-74.53317261 7.397500515 12.99918938
-74.50831604 7.76063633 12.99218941
-74.34889221 7.723921776 12.90484428
-78.20619202 8.291306496 12.95334148
-74.44341278 8.264854431 13.08986664
-74.36040497 8.225966454 12.86720753
-74.44174194 8.700619698 13.02561665
-74.34757233 8.419297218 12.86072826
-74.5759201 9.028570175 13.08671474
-74.36114502 9.074393272 12.97216129
-74.5332489 9.415843964 13.0347805
-74.38101196 9.463676453 13.02354527
-74.70832825 9.721804619 13.18031502
-74.37109375 9.843815804 13.03841877
-78.62715149 10.22851944 13.0150032
-78.19589996 10.21931648 13.13140488
-74.87509918 10.11319447 13.10730743
-74.58547211 10.20923138 13.02736282
-74.39543152 10.00695896 13.1281662
-78.59640503 10.49965668 12.83939075
-77.58465576 10.58358288 13.12000942
-74.58888245 10.65383816 12.95948505
-78.26034546 10.86076736 12.9993248
-74.54157257 11.04414749 13.0010128
-74.49534607 11.42658329 12.98061848
-74.36846924 11.34162521 12.96669388
-74.55042267 11.85226631 12.97118855
-74.46761322 12.3194828 12.9855938
-74.22190857 12.24851799 13.00302601
-74.4359436 12.58065128 13.00157547
-74.2431488 12.63313198 12.90894413
-74.22705078 12.94280052 12.95555973
-74.21268463 13.4026022 13.00047779
-74.23117065 13.74540234 12.9170084
-74.16671753 14.30898857 12.87685204
-74.16627502 14.63350964 13.03539848
-74.07720184 14.91015339 12.97526169
-74.07901764 15.56673241 13.09373665
-74.09315491 15.76552677 12.99307919
-74.07655334 16.1710701 12.89082718
-74.01141357 16.53729439 12.91631317
-74.13893127 17.04900551 13.07851696
-74.01725769 17.34978485 13.00490379
-74.12879181 17.63030434 13.09063816
-73.93211365 17.70358849 12.81880188
-74.0170517 18.10541534 12.88943481
20.18884659 -2.114779234 13.48818302
-10.35220146 -1.750673294 13.47646236
-9.747196198 -1.670744419 13.26507759
-5.554795742 -1.764003515 13.40062523
-5.117101669 -1.778307557 13.28718662
-4.539103985 -1.763435125 13.47789955
-4.107322693 -1.78245461 13.42455006
-1.681859016 -1.92257297 13.44038391
1.236091614 -1.648474336 13.3570528
3.4564991 -1.702647686 13.21306705
3.716970444 -1.676815033 13.33681393
4.345751286 -1.620490551 13.27290344
4.659572124 -1.600205183 13.37821579
5.231439114 -1.625500083 13.54376411
6.4289217 -1.613677263 13.31342506
7.070467949 -1.806328058 13.51133442
7.376879215 -1.673741937 13.39705276
8.162772179 -1.706335545 13.34239578
8.669741631 -1.775495291 13.44212723
9.082612991 -1.640284777 13.47157574
9.392968178 -1.618322253 13.4464922
9.761229515 -1.920715809 13.34463024
10.15304565 -1.709379792 13.48964214
10.89048767 -1.795151472 13.34691906
11.24049568 -1.621807218 13.46747208
12.26867104 -1.601658344 13.33751202
12.69755363 -1.637813091 13.51615238
12.96440125 -1.645614386 13.3716011
13.41749382 -1.698254943 13.41041374
14.25560951 -1.684920311 13.38565254
14.67909622 -1.838263392 13.42522049
18.12375259 -1.76539886 13.4686451
19.01688766 -1.734536409 13.32651329
26.46259499 -1.90372014 13.51219559
27.44491386 -1.989595532 13.3584528
30.67126656 -1.930475712 13.23260784
-21.28000259 -1.238560081 13.48882675
-20.02590179 -1.21578145 13.51852226
-19.72393036 -1.249827147 13.45328331
-19.43919373 -1.21474874 13.44850159
-18.88593292 -1.240817785 13.51714039
-18.40885544 -1.201461911 13.41279221
-18.20483208 -1.226052999 13.46003532
-17.82278061 -1.246432424 13.35819912
-17.43730927 -1.245889664 13.38896179
-16.97975922 -1.254336357 13.48034382
-16.65843964 -1.251272917 13.35329151
-16.20280838 -1.290084004 13.46136379
-15.85029602 -1.309074879 13.29333305
-15.35451317 -1.284851909 13.41395378
-15.02914906 -1.283794045 13.37890148
-14.56934738 -1.289572358 13.43887329
-14.2629137 -1.319572806 13.40076923
-13.61211205 -1.31185019 13.21225166
-13.48327351 -1.311182976 13.45360374
-12.80679226 -1.293293834 13.32546329
-12.45882225 -1.32179141 13.41622353
-12.20834732 -1.356367826 13.33721352
-11.66834545 -1.335878849 13.4904356
-11.42829704 -1.335768461 13.39853191
-10.99108982 -1.334334373 13.36342144
-10.7223053 -1.367007256 13.46693802
-10.1521244 -1.363378644 13.35690308
-9.805828094 -1.362836361 13.3423214
-9.483337402 -1.395684719 13.41186333
-8.944525719 -1.421153665 13.52781963
-8.627737045 -1.392709255 13.31806278
-8.175621986 -1.389960408 13.47984314
-7.681855202 -1.435970902 13.52050209
-7.431558609 -1.401416779 13.33577824
-7.156270981 -1.395411372 13.48196793
-6.650680542 -1.425034285 13.31712151
-6.075492859 -1.437492967 13.26963043
-5.732656002 -1.424761057 13.36270714
-5.333854675 -1.475940347 13.46125031
-4.986847401 -1.442917585 13.51915264
-4.605362415 -1.466664433 13.4528532
-4.173717022 -1.44906342 13.51082993
-3.78295517 -1.452173591 13.36178112
-3.355018377 -1.471275568 13.42804718
-2.978444576 -1.4681108 13.47877502
-2.611300945 -1.472915292 13.44116879
-2.220178366 -1.48489368 13.34669781
-1.862733126 -1.495901942 13.35232353
-1.397058129 -1.492722631 13.36524487
-1.048759341 -1.491092324 13.30968952
-0.6578288078 -1.504329562 13.34871578
-0.2296000719 -1.475470185 13.3011055
0.1640276313 -1.530680537 13.30677986
0.6632490158 -1.550042748 13.48978043
1.070089936 -1.56001091 13.30405617
1.384825945 -1.561372757 13.42201424
2.550816059 -1.555897236 13.54324722
3.053749084 -1.566332817 13.28555965
3.405416965 -1.572040915 13.42947769
3.666071653 -1.564484596 13.31707668
4.618445396 -1.563178778 13.42122841
5.021215916 -1.572232246 13.36240101
5.587920666 -1.561809421 13.59247494
5.661978245 -1.55875051 13.2873106
6.229320049 -1.566586733 13.47419167
-38.62722015 -0.9423343539 13.27097511
-36.13350677 -0.8261927366 13.42364216
-35.80067062 -0.8578410745 13.38075352
-35.31946182 -0.8531313539 13.34456158
-34.57371521 -0.852245152 13.33588219
-34.26931 -0.8820370436 13.43623924
-33.93300629 -0.9437141418 13.4020052
-33.20831299 -0.8909768462 13.32453728
-32.97703171 -0.9133372903 13.31509304
-32.61753464 -0.8914500475 13.43546677
-32.20212173 -0.936774075 13.49221039
-31.71222687 -0.9206327796 13.38386917
-31.3068161 -0.9572111368 13.30373955
-30.92128372 -0.9403911233 13.34893036
-30.639328 -0.9427790046 13.4062748
-30.0356102 -1.004675865 13.47012901
-29.79099083 -0.9794585705 13.39867306
-29.40287781 -0.9910063744 13.41034698
-29.06383324 -0.9993481636 13.42830372
-28.70593262 -0.995965302 13.35442638
-28.24230957 -1.007671952 13.43015099
-27.78750229 -1.027619481 13.35058308
-27.36441803 -1.032859683 13.40386581
-26.9723835 -1.053794265 13.48020649
-26.55034065 -1.088839293 13.33807087
-26.07200623 -1.087807655 13.37796402
-25.88563156 -1.080033064 13.34025764
-25.54614639 -1.049908876 13.37712288
-25.02941513 -1.088996172 13.46058083
-24.50594139 -1.131075501 13.43780041
-24.24955177 -1.093702674 13.41314793
-23.77396774 -1.1399014 13.36904812
-23.4564209 -1.118744373 13.39688492
-22.94387817 -1.119016647 13.37824249
-22.6331234 -1.15519619 13.3295927
-22.21931076 -1.140922546 13.45554352
-21.85967255 -1.152215004 13.39725685
-21.35922241 -1.195824862 13.50727463
-21.02896881 -1.188548565 13.26209641
-20.54071617 -1.172426581 13.44729519
-20.18044472 -1.179877639 13.34936619
-19.25084305 -1.198444486 13.46290207
-19.13376808 -1.199513793 13.3408308
-17.50937653 -1.190510035 13.22865963
-15.84580803 -1.154399753 13.26670742
-49.36148071 -0.4055129588 13.49304581
-47.67510986 -0.4560463428 13.39684772
-46.06541061 -0.4604142904 13.47920036
-45.43939209 -0.5215647221 13.44410992
-44.39936066 -0.5048403144 13.29712105
-43.60934067 -0.53148669 13.55750084
-42.22752762 -0.6399270892 13.51220512
-41.75083923 -0.6185972095 13.32840347
-41.30759048 -0.6016558409 13.44448376
-40.99081421 -0.6159015894 13.41031837
-40.62274933 -0.6360889673 13.46487236
-40.07482147 -0.6490659118 13.24302101
-39.90042496 -0.6490935087 13.38739586
-38.98566437 -0.6847921014 13.48278427
-38.58294678 -0.7480280399 13.31537056
-38.18672943 -0.7665814161 13.47881031
-37.79563141 -0.7237560153 13.41007042
-37.36915207 -0.753176868 13.35369396
-36.9564209 -0.7609101534 13.43414116
-36.64043808 -0.7919282317 13.36345482
-36.32943344 -0.798109293 13.27185535
-50.09562302 -0.253271848 13.31777
-49.94080734 -0.3468846679 13.45363903
-6.613978386 -0.09514311701 13.55888176
-6.108696461 -0.102993384 13.40207672
-50.28753662 0.3200251162 13.2378521
-21.72921753 0.1770558953 13.43741894
-21.36885071 0.1993130594 13.46640968
-21.02831268 0.1612835824 13.43924904
-20.63054466 0.204522416 13.46572685
-6.800671101 0.00993822515 13.54631329
-6.629160881 0.02244100533 13.57778168
-56.42856979 0.6742361784 13.43142891
-56.3523407 0.6395162344 13.27729988
-55.36536407 0.67427665 13.41309071
-50.21417618 0.5338321328 13.44297886
-50.22031784 1.48408711 13.45204449
-50.14226151 1.650884509 13.39004803
-50.23587036 2.183678389 13.4316864
-77.59794617 4.736030579 13.26263714
-75.51699066 4.790663719 13.30127335
-74.95069885 4.744534969 13.45607567
-74.66765594 4.695996284 13.37012863
-72.62772369 4.478404999 13.50176048
-75.04678345 4.855285645 13.58055305
-74.67790985 4.837593079 13.36590576
-74.92386627 7.033624172 13.39037704
-75.2358551 7.388308525 13.54597473
-74.69056702 7.372625828 13.48668861
-74.95149231 7.766558647 13.48196888
-74.54924774 7.764348507 13.35245037
-77.22053528 8.38958168 13.37904072
-74.54808807 8.232250214 13.37704182
-74.54613495 8.534991264 13.35910034
-74.54599762 8.954901695 13.41712093
-74.83360291 9.391448975 13.47582054
-74.66807556 9.434785843 13.42021084
-74.83054352 9.946623802 13.37262535
-74.64930725 9.768867493 13.33088589
-74.89318848 10.12202644 13.43828392
-74.73184967 10.20032597 13.4109869
-77.18112946 10.65161705 13.32756805
-76.62056732 10.47173309 13.47273827
-75.34481812 10.77134514 13.34846115
-74.8502655 10.7660284 13.44759655
-74.69111633 10.59147549 13.3968792
-74.92554474 10.80289364 13.59129906
-74.65504456 11.03389454 13.32970333
-77.46652985 11.21149635 13.29567528
-74.66148376 11.37215614 13.34952831
-74.82722473 11.68545818 13.58362389
-74.62966156 11.85446167 13.34611702
-74.59397125 12.18572044 13.42856503
-74.38487244 12.15176296 13.30777168
-74.48012543 12.64899445 13.48228168
-74.28620148 12.72244549 13.25114536
-74.3649826 12.91297913 13.51812553
-74.22750092 13.49529171 13.36799812
-74.70808411 13.67521477 13.40120316
-74.2712326 13.83617973 13.4332943
-74.28631592 14.09842205 13.43671703
-74.27185059 14.45864487 13.3538723
-74.25518799 15.05928802 13.38278866
-74.28440094 15.46820068 13.46811295
-74.23171997 15.82521248 13.3583622
-74.40503693 16.00243187 13.36740494
-74.22800446 16.17496872 13.31962109
-74.21159363 16.67562103 13.30592918
-74.27996826 17.04051399 13.36208344
-74.14689636 17.25018692 13.27404785
-74.22633362 17.79443741 13.44505882
21.76036644 -2.120789051 13.71393013
23.19902039 -2.112890005 13.85205269
-9.332551956 -1.712447166 13.81952286
-8.950836182 -1.688300729 13.86694527
-3.633281231 -1.784332752 13.91346741
-3.162944078 -1.801039815 13.79218578
-2.175694704 -1.812619328 13.99791241
-0.6185522079 -1.797412395 13.67358017
-0.08849906921 -1.602084398 13.67968369
0.5096330643 -1.944818854 13.74402618
1.04473877 -1.636993766 13.73600388
1.604912758 -1.963239431 13.97297478
2.501554489 -1.662217379 13.67841911
3.33987236 -1.609249234 13.76637936
3.845131874 -1.622870803 13.8136692
4.210935116 -1.6133641 13.66112709
4.415335178 -1.601128459 13.61930943
4.930941105 -1.983772993 13.81035233
5.371276855 -1.904307127 13.68271923
6.194018364 -1.953998208 13.68829918
6.663813114 -1.653198838 13.79002857
6.93331337 -1.710442066 13.87434292
7.432245255 -1.633679986 13.83428383
7.872438431 -1.800935268 13.67306137
8.678506851 -1.646047592 13.7882843
9.048528671 -1.777698517 13.83327484
9.38519001 -1.6219486 13.86871719
9.949399948 -1.702318907 13.60204887
10.14666939 -1.60985136 13.86363888
11.18606949 -1.62319231 13.72218227
11.36685753 -1.776532054 13.81037331
12.01589966 -1.603712082 13.72156811
12.54879189 -1.639889121 13.85750771
13.14756393 -1.686283827 13.86442757
13.3997488 -1.720632911 13.74014378
13.90733433 -1.689875007 13.95964432
14.03792953 -1.684318304 13.67897224
14.53004837 -1.838223338 13.87469482
15.64677143 -1.728566766 13.66259193
16.42077827 -1.712298393 13.89157581
18.3853302 -1.715425014 13.66941071
18.57637596 -1.733207226 13.71620369
19.87426949 -1.702293038 13.64030075
20.67944717 -1.865625381 13.74504089
21.56633949 -1.72362411 13.70159245
23.73978615 -1.671956658 13.78152561
24.68152428 -1.760463715 13.8942585
26.19738197 -1.777104855 13.66555023
26.80353928 -1.917860746 13.65688133
-21.33223724 -1.22879231 13.90176201
-20.20249176 -1.213527918 13.88245487
-19.75279999 -1.208454609 13.76756191
-19.45034027 -1.211096048 13.82314682
-19.01305389 -1.236396194 13.89783287
-18.58374405 -1.213305235 13.88623905
-18.22523499 -1.245450616 13.81729317
-17.85144043 -1.23786664 13.76722908
-17.32422447 -1.234444261 13.75717258
-17.01918411 -1.255211115 13.78005219
-16.54459953 -1.272354603 13.80627632
-16.26768684 -1.293903232 13.83718395
-15.8898344 -1.245731354 13.7665844
-15.29319763 -1.280358911 13.79681492
-15.08577156 -1.29175365 13.84260464
-14.62153149 -1.299790382 13.77766037
-14.22335052 -1.29444778 13.82525158
-13.41703796 -1.296176195 13.88897419
-13.07736206 -1.329565406 13.76503181
-12.48891449 -1.29818809 13.76558018
-12.23593521 -1.342590332 13.88784885
-11.80990791 -1.351282477 13.9071064
-11.46700001 -1.343731284 13.83620262
-11.04623413 -1.34077096 13.81264019
-10.58457088 -1.34264493 13.8091774
-10.18976402 -1.331044197 13.74897099
-9.869728088 -1.352768421 13.64875221
-9.421622276 -1.391452193 13.83167744
-9.003115654 -1.413519263 13.79599476
-8.463722229 -1.400646806 13.75420475
-8.080494881 -1.416734338 13.76467609
-7.814582825 -1.389078736 13.8364687
-7.413810253 -1.394261122 13.89910889
-6.937070847 -1.415784359 13.76152802
-6.484686375 -1.414968252 13.94340134
-6.014060974 -1.49040854 13.65192223
-5.971605301 -1.495234251 13.93735695
-5.351797104 -1.454232812 13.7195282
-4.960478783 -1.449244738 13.7796936
-4.609379768 -1.450154066 13.81654644
-4.259081841 -1.454193473 13.86590099
-3.799670696 -1.457182527 13.96504498
-3.444502354 -1.460804701 13.86901283
-2.604462385 -1.47921288 13.65478325
-2.169210196 -1.522978187 13.79867554
-1.695178747 -1.491021633 13.94238567
-1.331765294 -1.525542855 13.82014847
-1.011465788 -1.533652663 13.81100941
-0.6387934685 -1.523037195 13.92766476
-0.3673241138 -1.525845885 13.84105015
0.1847150326 -1.546852231 13.79952049
0.494751215 -1.546224356 13.9563961
0.9548736811 -1.553036213 13.69343662
1.537307501 -1.540487766 13.98950195
1.85426116 -1.545892954 13.87042809
2.143169403 -1.550596595 13.746521
2.588326931 -1.558722734 13.87187862
3.066711426 -1.56846869 13.75821686
3.522201538 -1.56586647 13.89441299
3.881281137 -1.565790296 13.86114502
4.184610844 -1.569802046 13.71390343
4.563552856 -1.570313096 13.76617432
4.966709137 -1.574495912 13.84482479
5.584099293 -1.562151194 13.89488411
5.646511555 -1.553868532 13.87745667
6.162095547 -1.576672554 13.94771099
-39.58733368 -0.8166335821 13.79822159
-36.69758987 -0.9262405634 13.60881233
-36.23560715 -0.8135549426 13.75370026
-35.83311844 -0.8795799613 13.85273457
-35.44820404 -0.8436113596 13.80543232
-35.02922058 -0.8301484585 13.80592823
-34.56234741 -0.8576421142 13.87229633
-34.23561859 -0.8823194504 13.79517174
-33.80103683 -0.9418596029 13.69351768
-32.91238785 -0.9309208393 13.67799473
-32.60752106 -0.8948608637 13.81554794
-32.22180939 -0.9099946022 13.88452435
-31.71410751 -0.9449885488 13.72609711
-31.41244125 -0.9470220804 13.90665054
-30.92022705 -0.9477299452 13.80722332
-30.60858536 -0.9464607239 13.81690025
-30.15960121 -0.9786031842 13.80334663
-29.8162384 -0.9631076455 13.84805298
-29.47037697 -0.9909847975 13.80062103
-29.04886627 -0.9967188835 13.86425114
-28.63786316 -0.9961598516 13.64239788
-28.19667053 -1.02196157 13.7633543
-27.827034 -1.016333342 13.77468204
-27.28655434 -1.036331534 13.877738
-26.99364471 -1.09152472 13.83094883
-26.58566856 -1.046426535 13.79290295
-26.07180977 -1.081551194 13.8071394
-25.77194786 -1.063178062 13.78471184
-25.29920006 -1.079197526 13.7657547
-25.01951027 -1.064820409 13.82139111
-24.61640358 -1.117291451 13.74647999
-24.26649666 -1.104653955 13.81053162
-23.80168152 -1.086522937 13.80083561
-23.36636543 -1.100612521 13.67373848
-23.01636505 -1.129315495 13.82707214
-22.59986115 -1.161201119 13.66657257
-22.12841797 -1.137902141 13.80974865
-21.81049347 -1.143665314 13.79798603
-21.5113163 -1.191383958 13.82571793
-21.05618477 -1.160928726 13.70637608
-20.6046772 -1.180426598 13.80097294
-20.38024139 -1.166476846 13.88873482
-19.88814545 -1.196903706 13.97349358
-19.49953461 -1.194045424 13.764431
-17.52584839 -1.191710472 13.61592007
-15.66348553 -1.161102057 13.75390625
-48.41543579 -0.4766319394 13.63830185
-48.22637939 -0.5978617668 13.86815548
-47.25897217 -0.4584013224 13.61245728
-46.17265701 -0.4677859545 13.9001236
-45.31862259 -0.4907189608 13.85696793
-44.49905777 -0.5421683788 13.62743855
-43.59741592 -0.5652263165 13.83280087
-42.81687164 -0.5576428771 13.78654099
-42.70994949 -0.5382106304 13.68957901
-41.03206253 -0.6213693619 13.91133881
-40.50549698 -0.6332988143 13.78565979
-40.21450424 -0.660366416 13.91042328
-39.78916168 -0.6504394412 13.7504015
-38.84883499 -0.6922938228 13.7408905
-38.59278107 -0.7243893147 13.84824276
-37.78353882 -0.7876147032 13.82705307
-37.45796967 -0.7522211075 13.76753044
-36.97553253 -0.7550536394 13.76591301
-36.57424545 -0.7869722247 13.71614552
-50.47437286 -0.08462388813 13.94801044
-50.28684616 -0.2570615411 13.77616978
-48.92668152 -0.3676531911 13.7380743
-47.60250092 -0.3974663913 13.62317657
-6.572032452 -0.07950016856 13.66353321
-6.154307365 -0.04460704699 13.60856819
-50.40397263 0.2261202037 13.72699738
-21.40247536 0.1533295512 13.72130299
-20.91586304 0.2092423439 13.9078989
-20.79052925 0.2102757245 13.90913391
-20.11610985 0.2095111161 13.86659718
-19.94731712 0.1456430256 13.90771008
-6.58934021 0.03218236566 13.63059044
-6.241956234 0.01935772225 13.62813854
-55.2405014 0.6323444843 13.65706921
-55.18635559 0.5683250427 13.748909
-53.73945236 0.5793498755 13.98193836
-50.41962433 0.4852436185 13.90977001
-50.33724594 0.5247213244 13.78557873
-51.82935715 1.19800055 13.70157814
-51.70564651 1.550299048 13.81168747
-50.44692612 1.35959661 13.86700916
-50.34281921 1.432544112 13.79551983
-51.65518188 1.818564415 13.81876278
-51.59827423 1.764192581 13.81336975
-50.43880463 1.726137757 13.96205616
-50.30340576 1.644978523 13.8137598
-50.56303406 2.383275986 13.95519257
-50.3249588 2.204167604 13.74394989
-74.91749573 2.460104465 13.76548767
-50.50646973 2.58200264 13.94956589
-50.45343781 2.904075384 13.96589279
-75.40542603 4.635971546 13.87987614
-74.90422058 4.711326599 13.78781605
-74.76742554 4.717112064 13.67826557
-72.69023895 4.481902599 13.63843346
-75.39833069 4.856123924 13.9045887
-74.93903351 4.885820389 13.84167957
-74.76637268 4.865219593 13.68849182
-75.38452911 5.491428375 13.99851608
-75.34424591 6.222838879 13.89108562
-75.35874176 6.587164402 13.92644501
-75.08287811 6.587228775 13.97828388
-75.39766693 6.801715851 13.93137836
-74.97109222 7.057192802 13.86377907
-75.49213409 7.512580872 13.80532074
-75.05841064 7.483341217 13.85895824
-74.49054718 7.577165604 13.75947571
-74.93640137 7.782525063 13.90787983
-74.61151123 7.761636257 13.77505589
-74.68416595 8.209487915 13.80342579
-74.80426788 8.620463371 13.9963665
-74.69283295 8.585411072 13.80378246
-74.89396667 9.194353104 13.77779388
-74.67750549 8.991110802 13.82494354
-74.90998077 9.410170555 13.86699104
-74.67912292 9.508665085 13.73932648
-75.41294861 9.705696106 13.92215729
-74.91015625 9.726540565 13.77843094
-74.74261475 9.763633728 13.83528709
-75.43178558 10.36752033 13.93125534
-74.90905762 10.19386387 13.84277153
-74.77828979 10.27451134 13.62400913
-76.06421661 10.65234756 13.75773335
-75.23247528 10.78603935 13.80970764
-74.89912415 10.64016628 13.96429062
-74.75032043 10.70239067 13.61691475
-74.77585602 10.91359711 13.64757824
-74.84339905 11.30259609 13.8193121
-74.76257324 11.37066555 13.82601261
-74.8503952 11.87540054 13.89692593
-74.72306061 11.8230648 13.75026608
-74.8369751 12.30895805 13.91159725
-74.61842346 12.17206764 13.85110474
-74.50178528 12.64466476 13.82368565
-74.50156403 13.42354107 13.8046999
-74.0823822 13.44948959 13.60003281
-74.43592834 13.91085434 13.81322289
-74.34607697 13.77879238 13.78313828
-74.54893494 14.07640457 13.96411705
-74.31995392 14.16692448 13.61737061
-74.46879578 14.60026646 13.77812195
-74.29989624 14.74189949 13.65592003
-74.44869232 15.03987885 13.85018158
-74.3321991 14.88665581 13.70223618
-74.46826172 15.48497581 13.80788803
-74.425354 15.81253624 13.85922909
-74.36333466 15.90188885 13.8573103
-74.51056671 16.37313271 13.64569092
-74.48934174 16.53087807 13.7060318
-74.34804535 16.69649315 13.69518661
-74.42887878 16.90284348 13.7992363
-74.30375671 17.0976162 13.78748322
-74.46566772 17.20657158 13.9662981
19.28957367 -2.111060381 14.10914135
20.72759247 -2.098961353 14.12812233
-8.243601799 -1.687395811 14.25983906
-2.662335873 -1.794572592 14.12137604
-1.694020748 -1.807171106 14.33924103
-1.193047285 -1.827648282 14.23297405
-0.1727340221 -1.830994368 14.22104359
0.8857988119 -1.740439653 14.32823753
2.716312408 -1.972679257 14.00157738
3.00331068 -1.611209631 14.39943027
3.415577412 -1.614109516 14.17778587
3.732331991 -1.794456005 14.12512493
4.830790997 -1.879859924 14.25574589
5.213016033 -1.625289917 14.19940376
5.822967529 -1.888267756 14.14212513
6.580320835 -1.61492455 14.27267838
7.179112434 -1.659075022 14.30668926
7.540313244 -1.638721585 14.19108295
7.723078728 -1.70029676 14.00693989
8.113948822 -1.894173145 14.03242874
8.750495911 -1.64886868 14.17732716
9.044065475 -1.650720119 14.23846149
9.362075806 -1.626847267 14.20681572
9.986104965 -1.705665588 14.01883507
10.10679436 -1.611457109 14.11313915
11.09264755 -1.626433492 14.15900517
11.48041344 -1.603071213 14.39286613
11.73596859 -1.601315022 14.04425907
12.21989059 -1.641301513 14.28979301
12.51747036 -1.659898877 14.22697258
12.94425201 -1.695614934 14.20806885
13.56741714 -1.687378287 14.35326576
14.39313507 -1.842097998 14.37334633
18.26322746 -1.767588377 14.33612919
19.09915733 -1.74227035 14.21792984
23.65377045 -1.675724983 14.20237255
26.76590347 -1.922848225 14.13192749
30.26812935 -1.926928043 14.32482147
-21.58189774 -1.251465797 14.28122616
-21.15673065 -1.207357407 14.32600784
-20.40868759 -1.210778713 14.35701275
-20.17228508 -1.211770058 14.20464993
-19.76278114 -1.219274998 14.24370003
-19.2795639 -1.230461121 14.17846203
-19.00541306 -1.219905376 14.27789116
-18.5178051 -1.257194757 14.16533566
-18.18839836 -1.236947417 14.1541338
-17.8672123 -1.236540318 14.20601082
-17.33763123 -1.234627604 14.14692879
-17.02153206 -1.256092787 14.23696518
-16.56191063 -1.300743461 14.23804665
-16.25782776 -1.272073388 14.2068224
-15.78646278 -1.266326189 14.10329437
-15.40515709 -1.285945296 14.23737907
-15.02040863 -1.299504399 14.17930603
-14.58885479 -1.313357949 14.20017719
-14.2161684 -1.302264929 14.25305557
-13.41638184 -1.305468202 14.16563129
-13.06228542 -1.328347683 14.27995205
-12.61499786 -1.33671236 14.19072914
-12.2277317 -1.320786953 14.2961483
-11.88841438 -1.338982463 14.09735298
-11.41969776 -1.347436666 14.22751904
-10.96302223 -1.350292325 14.15130043
-10.62922287 -1.375820756 14.23602772
-10.21036148 -1.344566345 14.27608204
-9.680809021 -1.369402885 14.09314632
-9.366519928 -1.397745609 14.26720047
-8.988073349 -1.390042305 14.18960571
-8.641664505 -1.404989243 14.2298069
-8.164942741 -1.427688599 14.0823698
-7.764703751 -1.419242501 14.22075653
-7.33592844 -1.414248943 14.24683857
-6.905817986 -1.417652845 14.19281769
-6.494052887 -1.437778473 14.08410072
-6.136131287 -1.430208802 14.16607189
-5.793745995 -1.452357173 14.2878418
-5.33345747 -1.489013672 14.21746063
-5.084093094 -1.452850938 14.18157196
-4.601654053 -1.499156952 14.28912544
-4.198112488 -1.441519499 14.08786583
-3.795642853 -1.448611617 14.227211
-3.408745527 -1.46491003 14.16192722
-2.976643324 -1.462787509 14.15595341
-2.619244576 -1.466629744 14.16452885
-2.186334848 -1.478587508 14.2001543
-1.881789565 -1.51260066 14.11120319
-1.423778057 -1.498821855 14.16040897
-0.9386780262 -1.516818643 14.09783077
-0.5750834942 -1.520967007 14.19028759
-0.128755942 -1.519971132 14.19834423
0.2210284472 -1.520819306 14.2492981
0.6362078786 -1.525774598 14.21008778
0.9985199571 -1.52662611 14.21738911
1.411261559 -1.532770157 14.24314499
1.832077622 -1.541229725 14.26813316
2.235522032 -1.545688152 14.13741302
2.577113628 -1.548923612 14.14591312
3.059994221 -1.543045163 14.15057755
3.542336702 -1.547544003 14.0874157
4.616074562 -1.580434918 14.24248028
4.942538738 -1.563756227 14.25234127
5.343007088 -1.555310607 14.11917877
5.976122379 -1.5762887 14.31661797
-38.91047668 -0.9381142855 14.25986862
-36.26529312 -0.8295194507 14.15664387
-35.8418541 -0.8962538242 14.22193146
-35.41680145 -0.8422557712 14.26514721
-35.00199509 -0.8801375628 14.2237463
-34.63818741 -0.8399527073 14.29152203
-34.20921707 -0.9045929909 14.27974701
-33.90182495 -0.8829953671 14.29846382
-33.39226151 -0.8643162251 14.23023796
-33.0401535 -0.8969980478 14.2004261
-32.60818481 -0.9282406569 14.12966347
-32.22109222 -0.9105416536 14.21983719
-31.9458046 -0.904861927 14.20827484
-31.48347855 -0.9087846279 14.12145805
-30.92769051 -0.929638207 14.22064209
-30.7521286 -0.9643283486 14.22745419
-30.26272583 -0.9849539399 14.16209698
-29.67693901 -1.006553531 14.24521923
-29.39771652 -0.9705545306 14.2094326
-28.92524338 -1.003658652 14.20035458
-28.64366913 -1.001490235 14.21745014
-28.17608452 -1.011495233 14.22941208
-27.80336189 -1.020493627 14.21367168
-27.49133301 -1.068523288 14.28186703
-27.00418282 -1.10125792 14.14047718
-26.6245575 -1.053182602 14.22387886
-26.11113167 -1.081820607 14.22714329
-25.7053318 -1.088523507 14.17004776
-25.35403252 -1.08139956 14.24803066
-24.84142685 -1.144966722 14.32793903
-24.72965431 -1.128898859 14.16043568
-24.37109566 -1.088122606 14.20637703
-23.84407234 -1.132236719 14.24925137
-23.32355881 -1.120565414 14.26706696
-23.10747337 -1.134357929 14.21123028
-22.5928421 -1.163601518 14.20790482
-22.28742409 -1.142137885 14.19262695
-21.78886986 -1.149324059 14.14120579
-21.28264809 -1.150948882 14.15819931
-21.01089478 -1.155505776 14.14175129
-20.5422554 -1.161107421 14.2476902
-20.1039772 -1.192207813 14.35177135
-19.78574562 -1.187894225 14.16699982
-18.87829399 -1.195796967 14.09070015
-17.51976395 -1.193543911 14.19728088
-15.50225544 -1.165730119 14.12374496
-48.88413239 -0.4188910425 14.11961174
-47.68583679 -0.4877713919 14.22899151
-47.55674744 -0.4518107176 14.06178665
-44.4520874 -0.5121887922 14.04568481
-43.61074829 -0.5352253914 14.2402935
-43.58703613 -0.6217275262 14.09947586
-42.62998962 -0.6804848313 14.09868622
-42.12268066 -0.5940265059 14.17467499
-41.32872772 -0.6201757789 14.35837555
-40.90284348 -0.6286300421 14.25289536
-40.68858337 -0.633752346 14.33717155
-40.22965622 -0.6433370709 14.18926907
-39.77788162 -0.661888957 14.18923473
-38.96210098 -0.6914858818 14.15507984
-38.70315552 -0.7068567276 14.25725555
-38.21410751 -0.7262910604 14.21591473
-37.43447113 -0.7514827847 14.34722137
-36.97851944 -0.7547943592 14.21771049
-50.50248337 -0.2301463783 14.1984148
-50.3693161 -0.3084763288 14.02626228
-49.48614502 -0.3366221189 14.26050091
-48.15639114 -0.394254446 14.12296581
-6.883694172 -0.0883024931 14.23569298
-6.747455597 -0.1021516472 14.13355923
-6.226715565 -0.0959681794 14.18970776
-72.57554626 0.3843830824 14.14928818
-51.74368668 0.3901190758 14.34978008
-50.97496033 0.2577052116 14.03869534
-50.62124634 0.06455253065 14.19632912
-20.88755608 0.1302820146 14.11664391
-20.60309792 0.1600699127 14.23955059
-20.26479149 0.2151571512 14.27222824
-19.81256866 0.1468971968 14.160923
-19.50377655 0.21484375 14.32745266
-6.875952721 0.02823530883 14.22758198
-6.771046162 0.02496007085 14.19935513
-6.310083866 0.02785628475 14.24904346
-53.71409607 0.4862371981 14.14534378
-50.88512421 0.6093245745 14.35962105
-50.49323273 0.5710101724 14.06591606
-50.48680878 1.093731403 14.02978897
-50.81282806 1.536734819 14.34485245
-50.52910614 1.428457737 14.12927818
-50.31415176 1.411535144 14.04619408
-50.80873871 1.627900124 14.2787962
-50.51390839 1.639500141 14.10030746
-75.1510849 2.228118181 14.23184395
-50.54391479 2.320557356 14.12782001
-50.38502121 2.164321899 14.00543404
-75.11608887 2.556265354 14.2054491
-50.51349258 2.603924036 14.15336895
-75.04771423 2.836761951 14.22077656
-50.47116089 2.953356981 14.06290913
-50.39189529 2.981347084 14.16291428
-75.076828 4.223592758 14.33191109
-75.25454712 4.720630646 14.1852417
-75.03111267 4.695665359 14.21261978
-74.74310303 4.622144222 14.03510857
-72.90971375 4.596364975 14.20905685
-75.27001953 4.836373806 14.2430687
-75.07498169 4.845043182 14.2247448
-75.0954361 5.314279556 14.18554306
-75.23548889 5.785199642 14.12586021
-75.0408783 5.787863255 14.22109032
-75.22309875 6.114762306 14.08369541
-75.06164551 6.230341434 14.2094202
-75.29379272 6.624344826 14.04523468
-74.98587036 6.56084919 14.24322319
-75.284729 7.058348179 14.19599533
-75.00296783 7.012875557 14.22021008
-75.31634521 7.494832039 14.01217365
-74.9901886 7.334032059 14.13683987
-74.94129944 7.805531025 14.21679878
-74.6607666 7.715227604 14.17940331
-74.85086823 8.259552956 14.20111465
-74.75908661 8.305936813 14.03070545
-74.87377167 8.58165741 14.16324043
-74.70056915 8.470781326 14.05454159
-74.84713745 8.977137566 14.24965096
-74.75483704 9.107892036 14.09754276
-74.96446228 9.407632828 14.18450832
-74.78012848 9.457129478 14.11240768
-74.94876862 9.75150013 14.21484375
-74.75143433 9.640499115 14.05243111
-74.94424438 10.21997261 14.22794819
-74.93293762 10.662714 14.21989346
-74.7580719 10.68716717 14.25157261
-74.90065002 10.92272377 14.13974571
-74.78468323 10.98020458 14.10637093
-74.86251831 11.38152122 14.20040321
-74.86870575 11.86170959 14.18939018
-74.83158875 12.24989128 14.33552742
-74.70498657 12.21471786 14.18499184
-74.82239532 12.43486691 14.3735075
-74.69054413 12.60630894 14.17932415
-74.60151672 12.93260956 14.13053703
-74.64138794 13.39895248 14.22540951
-74.30486298 13.56062412 14.10163116
-74.52549744 13.82852745 14.12637329
-74.3746109 13.72594738 14.14226437
-74.58614349 14.68222523 14.1310873
-74.58876038 14.99470806 14.16609478
-74.50298309 15.47141171 14.12799358
-74.50884247 15.91158104 14.18069172
-74.48657227 16.35575294 14.2056675
-74.66125488 16.71940422 14.18272877
-74.58531189 16.87112236 14.18529224
-74.38755035 17.44959641 14.17555618
-74.45032501 18.36221886 14.19764519
-74.39514923 18.18677521 14.11278725
18.35268593 -2.100187302 14.56842709
22.49673843 -2.123379707 14.73952484
-8.53528595 -1.777848482 14.51099873
-7.55210495 -1.684809685 14.63651276
-0.7530143261 -1.736878157 14.51914406
0.2721498013 -1.830950499 14.64909554
1.252537966 -1.844299793 14.78154564
1.820374608 -1.86047864 14.51241589
2.597015142 -1.633308411 14.54846191
2.825784922 -1.875556707 14.61336422
3.314580917 -1.608562589 14.47098255
3.880572319 -1.884521365 14.56140614
5.195699215 -1.62603569 14.56810093
5.222385883 -1.885174274 14.75631142
5.814476967 -1.610833645 14.76664925
6.226136684 -1.708044648 14.59100246
7.114394665 -1.748996735 14.57442951
7.385742188 -1.694477797 14.44581509
7.656070232 -1.610865593 14.65373135
8.94365406 -1.651771784 14.60028744
9.269458771 -1.625590324 14.55941963
9.975063324 -1.705173254 14.46361065
10.0367012 -1.611721158 14.4154129
11.04016495 -1.613375545 14.71399498
11.57588959 -1.781296372 14.63276863
11.87948227 -1.645368576 14.6537571
12.11794567 -1.643525124 14.57214069
12.82318306 -1.712102532 14.58467102
13.34300137 -1.705907345 14.60909939
15.71529675 -1.721967578 14.50086117
16.53918839 -1.711437464 14.71218109
18.56830978 -1.729796767 14.55593967
19.85232544 -1.706196547 14.53881359
20.73659897 -1.867019534 14.69499397
21.54387474 -1.730163574 14.64175129
23.55582428 -1.682494998 14.77454662
25.9473629 -1.781596184 14.67109299
26.32982254 -1.909633398 14.55793381
27.42770576 -1.997866988 14.48342514
-21.75432014 -1.247841239 14.78835106
-20.57937431 -1.210125208 14.7672863
-20.2128315 -1.210416675 14.65321541
-19.98577499 -1.218580246 14.65080452
-19.25720215 -1.231503487 14.66485405
-19.10638809 -1.207656145 14.57646656
-18.61353683 -1.25148356 14.61734962
-18.28154373 -1.238162398 14.61101151
-17.78862953 -1.240512252 14.62628365
-17.53417206 -1.245940804 14.6131258
-16.99583244 -1.249602318 14.64426327
-16.70830154 -1.273850203 14.65667152
-15.88253784 -1.291762352 14.60860062
-15.44611835 -1.273724556 14.5841341
-15.00212002 -1.279019237 14.59640026
-14.64616871 -1.284110546 14.64654732
-14.19193172 -1.322597146 14.60025311
-13.8897047 -1.312507391 14.59541798
-13.42589378 -1.301615477 14.63041115
-12.94736671 -1.332798004 14.55404663
-12.52373409 -1.341452479 14.6537447
-12.23879814 -1.325010419 14.62664604
-11.83815002 -1.348671317 14.6466856
-11.33601856 -1.34939909 14.50140762
-11.06645679 -1.359736443 14.61679554
-10.67047215 -1.342859268 14.61755085
-10.33605003 -1.347494364 14.70997429
-9.801328659 -1.38712883 14.63258362
-9.409552574 -1.408864021 14.46209145
-8.951340675 -1.390902638 14.59049511
-8.614719391 -1.38845253 14.51095963
-8.254513741 -1.41546905 14.5656662
-7.802959919 -1.426849842 14.63139629
-7.39669466 -1.422710061 14.64590454
-6.94236517 -1.411198974 14.56674576
-6.530116558 -1.418167233 14.65538025
-6.137015343 -1.422966599 14.57034302
-5.783813477 -1.482118368 14.62117481
-5.321228504 -1.467414856 14.5692749
-4.997753143 -1.439157605 14.58465862
-4.596560001 -1.45854485 14.61635208
-4.227046013 -1.458235383 14.58878613
-3.793209076 -1.464731097 14.61435509
-3.377521038 -1.470749617 14.52642632
-3.034237862 -1.472082853 14.5263958
-2.603959322 -1.488753438 14.649786
-2.193758249 -1.490471482 14.65860462
-1.855677247 -1.511356711 14.68087101
-1.362070203 -1.510485172 14.62019253
-0.9699268341 -1.506099582 14.54514885
-0.5761841536 -1.49461329 14.58249664
-0.19766967 -1.514785171 14.54598904
0.1198375523 -1.517681241 14.6052351
0.4849931598 -1.506635427 14.55206966
0.9351217151 -1.523949504 14.67184734
1.354657173 -1.525843143 14.58410931
1.761359215 -1.523268342 14.52791119
2.180232763 -1.526189804 14.42640591
2.445861816 -1.596596837 14.72147751
2.955392599 -1.599660993 14.63797379
4.213010311 -1.555061579 14.74363136
4.540651798 -1.572057128 14.62543583
4.851140022 -1.575452924 14.62354088
5.220502377 -1.560108542 14.53203201
5.788834095 -1.577555776 14.68629646
-39.68341446 -0.8064306378 14.78621864
-37.00404739 -0.9223588705 14.54757881
-36.41436768 -0.8328748941 14.62881088
-36.1476326 -0.8396670818 14.45210266
-35.81920242 -0.8660877943 14.67336845
-35.33578491 -0.844725728 14.55605888
-35.05550003 -0.8424134851 14.60816479
-34.61732864 -0.8571929932 14.57102585
-34.16382217 -0.885383606 14.48574829
-33.94008636 -0.982860446 14.62072086
-32.84718323 -0.9886289239 14.65476418
-32.64506149 -0.9317648411 14.69279861
-32.19106293 -0.9241172671 14.55649948
-31.87120819 -0.911021471 14.62059593
-31.52148438 -0.941776216 14.47729301
-31.11056519 -0.9374399185 14.5757761
-30.7485199 -0.9632662535 14.72160721
-30.13372612 -0.9763483405 14.54144096
-29.78005981 -0.9802822471 14.59740448
-29.38133812 -0.9783542752 14.66379833
-28.88908768 -1.007184863 14.66121292
-28.59142303 -1.006356478 14.65577507
-28.27025414 -1.006330609 14.62528706
-27.73064613 -1.03657949 14.62327099
-27.31891632 -1.048591852 14.53054142
-27.1055851 -1.082874417 14.58754635
-26.63382912 -1.055018902 14.6193676
-26.18704033 -1.058619261 14.55035877
-25.68471909 -1.089259267 14.5786972
-25.48240089 -1.085386515 14.6318779
-24.94000244 -1.091358423 14.6617651
-24.53595924 -1.101100922 14.60677052
-24.11498642 -1.105868459 14.59218502
-23.78560257 -1.077119946 14.54592991
-23.37410736 -1.131129265 14.62331676
-23.14797974 -1.158857107 14.77816677
-22.54673958 -1.142666698 14.65868568
-22.32482529 -1.137341499 14.53166199
-21.76845169 -1.151797175 14.61875343
-21.43237686 -1.15559268 14.41368294
-21.02146912 -1.172412276 14.61629009
-20.7208519 -1.159124374 14.62977409
-20.271595 -1.191881657 14.66254807
-19.99527359 -1.190398097 14.50167084
-18.87932396 -1.194782019 14.55231285
-15.3621254 -1.172127128 14.47981071
-47.67956924 -0.4202606082 14.51245308
-47.52788544 -0.4329881072 14.71118259
-46.34252167 -0.4369438887 14.59641361
-45.55571365 -0.5401050448 14.42231178
-44.50965881 -0.551922977 14.44134331
-42.87715149 -0.5491143465 14.54982185
-42.54120636 -0.6366353035 14.46485424
-40.64464569 -0.6444299817 14.646101
-40.13187408 -0.6466575861 14.49064827
-39.68260574 -0.6596559882 14.5106144
-39.4432373 -0.6799826622 14.57933807
-38.9190712 -0.7003884315 14.67007065
-38.6263237 -0.7083036304 14.65545273
-37.70344162 -0.7481911182 14.54265022
-37.41313934 -0.7581980228 14.78060341
-37.00273895 -0.7567567825 14.67061234
-51.00282669 -0.1384940594 14.58132458
-50.50221252 -0.3304845691 14.68490219
-49.84272385 -0.322864145 14.68828392
-47.36164474 -0.3983674943 14.44020462
-6.962573051 -0.09555968642 14.59367752
-6.459799767 -0.09478023648 14.65461063
-6.152804852 -0.1060232297 14.58885479
-72.74446106 0.1882486045 14.47888565
-50.97161865 0.2087907493 14.45643997
-20.5754528 0.1526252776 14.40338326
-20.18278122 0.1599526554 14.55580902
-19.66606712 0.2136850655 14.72241974
-19.4394474 0.2194078267 14.41052246
-18.97781944 0.1629882008 14.70078182
-18.72311401 0.1134774536 14.70963287
-50.94636154 0.5864361525 14.61289692
-50.98149872 1.479275703 14.65092468
-50.72717285 1.220502853 14.7741127
-50.89060211 1.646619201 14.5872345
-50.73335648 1.653218627 14.45039368
-75.30386353 2.310309887 14.64698792
-75.17925262 2.22225523 14.52732563
-50.92852783 2.083582878 14.61669064
-75.33203888 2.5348351 14.65527344
-75.15170288 2.612646103 14.62257004
-75.15428162 2.835032225 14.49172115
-75.14295959 3.775783062 14.60268879
-75.22267151 4.137225628 14.74674988
-75.17199707 4.347476006 14.66241837
-75.26993561 4.690998554 14.65462208
-75.09610748 4.699840069 14.53851509
-75.31803131 4.864498615 14.57734489
-75.14693451 4.839411736 14.62516785
-75.05741119 5.396859169 14.49267578
-75.0667572 5.8460989 14.55421734
-75.07287598 6.106238365 14.53642082
-75.07954407 6.549479485 14.64062309
-75.27007294 7.072954655 14.63755035
-75.06152344 7.016590118 14.60111141
-75.20300293 7.236770153 14.48089886
-75.06097412 7.358410358 14.53424072
-75.03520203 7.799324989 14.61271477
-74.73812103 7.729854584 14.44975281
-75.04415131 8.206398964 14.61807442
-74.9420929 8.504955292 14.52802658
-74.97293854 9.013263702 14.60667706
-75.27213287 9.333725929 14.62707043
-75.04917908 9.453003883 14.56529903
-75.03186035 9.734218597 14.6277895
-75.03905487 10.22468376 14.64586067
-75.04819489 10.64439678 14.60030842
-74.77406311 10.71569824 14.57540894
-74.95687103 10.92199707 14.52162933
-74.78813171 10.90001488 14.56847572
-74.97388458 11.41926289 14.66003513
-74.991539 11.84196663 14.62167168
-74.87927246 12.16294193 14.61568069
-74.76412201 12.13049698 14.49283695
-74.84846497 12.51821518 14.56251526
-74.92889404 13.01797867 14.74369335
-74.78436279 13.48871899 14.58464432
-75.08696747 13.87434864 14.44237709
-74.89125061 14.18762398 14.72041035
-74.6685791 14.14962959 14.48083687
-74.66833496 14.66654968 14.48706532
-74.96812439 14.81210327 14.75441265
-74.78727722 15.19386482 14.68661976
-74.69976807 15.35761642 14.53451157
-84.52777863 15.80506134 14.55305958
-74.63559723 15.91002083 14.542799
-74.96495056 16.19558525 14.75595379
-74.68379211 16.32986641 14.40638161
-74.87884521 16.48241806 14.70752144
